# .PCD v0.7 - Point Cloud Data file format
VERSION 0.7
FIELDS x y z intensity normal_x normal_y normal_z curvature
SIZE 4 4 4 4 4 4 4 4
TYPE F F F F F F F F
COUNT 1 1 1 1 1 1 1 1
WIDTH 1057
HEIGHT 1
VIEWPOINT 0 0 0 1 0 0 0
POINTS 1057
DATA ascii
-11.351355 -12.051163 4.2960253 6 0 0 0 0
-57.682308 -33.813015 -0.64390546 25 0 0 0 0
-57.835773 -34.257614 -0.70679134 28.5 0 0 0 0
-73.508591 -41.576321 -2.1226246 1 0 0 0 0
-56.954216 -33.396122 -0.56405658 3 0 0 0 0
-52.32 -27.209688 0.41382545 6 0 0 0 0
-52.919945 -25.589766 0.6017369 23 0 0 0 0
-53.168941 -25.78017 0.56725729 36 0 0 0 0
-56.473011 -27.25 0.2508454 43.400002 0 0 0 0
-56.773685 -27.749504 0.1748478 1 0 0 0 0
-57.490303 -28.018391 0.1136737 32 0 0 0 0
-60.417862 -29.090097 -0.12981384 27 0 0 0 0
-52.967014 -25.355808 0.63040787 34 0 0 0 0
-60.659294 -29.090469 -0.13831812 10.5 0 0 0 0
-61.109768 -28.524673 -0.081002176 13 0 0 0 0
-61.297073 -28.651878 -0.10394843 9.666667 0 0 0 0
-54.216194 -23.146135 0.8701635 21 0 0 0 0
-54.325233 -23.214407 0.85707498 45 0 0 0 0
-55.657158 -23.62974 0.75220901 21.5 0 0 0 0
-55.819855 -23.723017 0.73392081 37 0 0 0 0
-60.548931 -25.818201 0.28860277 24 0 0 0 0
-56.00148 -23.516005 0.75400805 36 0 0 0 0
-37.968483 -13.884445 2.7610555 11 0 0 0 0
-40.11306 -15.25584 2.4864006 4 0 0 0 0
-37.42569 -13.412858 2.8470135 14 0 0 0 0
-37.785271 -13.707048 2.7924378 2 0 0 0 0
-38.173649 -13.7412 2.7705297 13.5 0 0 0 0
-45.760487 -17.267235 1.9794085 21 0 0 0 0
-44.200989 -16.021021 2.2085249 14 0 0 0 0
-39.984257 -13.439584 2.7292385 14.666667 0 0 0 0
-44.022923 -15.12383 2.333395 10 0 0 0 0
-44.6087 -15.410504 2.2709093 22 0 0 0 0
-45.045219 -15.754119 2.2074397 22.666666 0 0 0 0
-45.329533 -15.725734 2.1990945 27 0 0 0 0
-45.616539 -16.130243 2.134089 24 0 0 0 0
-46.180416 -16.171263 2.1049747 2 0 0 0 0
-40.28804 -13.008582 2.7720923 12 0 0 0 0
-44.38382 -15.110936 2.3196514 19.5 0 0 0 0
-44.743317 -15.053178 2.3118773 21 0 0 0 0
-45.471302 -15.660059 2.2016795 27 0 0 0 0
-46.948109 -16.472681 2.0334363 15 0 0 0 0
-40.523506 -12.374331 2.8445473 54 0 0 0 0
-40.94875 -12.74401 2.777586 52 0 0 0 0
-41.43103 -12.980043 2.725646 60 0 0 0 0
-41.854755 -12.582329 2.7591124 20.5 0 0 0 0
-42.136314 -12.256145 2.7894816 13.5 0 0 0 0
-42.482937 -11.696529 2.8475668 49.333332 0 0 0 0
-36.299999 -8.0788393 3.5934932 4 0 0 0 0
-42.787663 -11.583497 2.8491552 58 0 0 0 0
-42.932537 -11.39517 2.8675096 7 0 0 0 0
-43.075214 -11.147884 2.8936713 4 0 0 0 0
-43.334343 -10.046109 3.0264971 46.333332 0 0 0 0
-43.668896 -10.337068 2.9741125 53 0 0 0 0
-35.80257 -3.283077 4.2414322 37 0 0 0 0
-47.37727 -8.9510546 2.9985955 29 0 0 0 0
-47.631302 -8.7116518 3.0193188 45.5 0 0 0 0
-50.219852 -8.3429232 2.9610131 9 0 0 0 0
-50.405266 -8.1265936 2.9817293 5 0 0 0 0
-57.767582 -10.197829 2.4209394 3 0 0 0 0
-57.895626 -8.9235897 2.582031 6 0 0 0 0
-65.07148 -12.116559 1.9009205 14 0 0 0 0
-65.358421 -12.284981 1.8688151 4 0 0 0 0
-73.538208 -16.137585 1.0902528 3 0 0 0 0
-64.927277 -10.882851 2.0659597 9 0 0 0 0
-65.99453 -11.600194 1.9347324 19 0 0 0 0
-66.173889 -11.603704 1.9278775 7 0 0 0 0
-69.270714 -12.877634 1.654337 3 0 0 0 0
-69.483002 -13.389348 1.5809902 18 0 0 0 0
-69.597801 -12.593309 1.6796739 9 0 0 0 0
-58.141457 -83.235367 -6.3364844 27 0 0 0 0
-58.459328 -83.391266 -6.3626375 29.333334 0 0 0 0
-58.812511 -83.601723 -6.395319 28.5 0 0 0 0
-59.255161 -83.956207 -6.4451447 30 0 0 0 0
-59.714993 -84.152901 -6.4800191 31 0 0 0 0
-60.188839 -84.441338 -6.5243354 29.5 0 0 0 0
-60.449932 -84.61869 -6.5505486 28 0 0 0 0
-56.848907 -82.043266 -6.1752806 29.333334 0 0 0 0
-57.279312 -82.458588 -6.2307839 27.5 0 0 0 0
-57.643044 -82.813728 -6.2780752 28 0 0 0 0
-57.848251 -82.94577 -6.2980599 26 0 0 0 0
-54.900589 -80.582474 -5.964519 26.25 0 0 0 0
-55.273613 -80.812157 -6.0000739 24.333334 0 0 0 0
-55.663013 -81.016556 -6.0336857 24.25 0 0 0 0
-56.137966 -81.457542 -6.0933394 26 0 0 0 0
-56.403908 -81.661736 -6.1225457 28 0 0 0 0
-54.141655 -79.780205 -5.8594608 21 0 0 0 0
-54.448296 -80.151558 -5.9065161 22.333334 0 0 0 0
-55.66658 -80.819725 -6.0146079 28 0 0 0 0
-50.902485 -77.5019 -5.520153 29 0 0 0 0
-51.207207 -77.733856 -5.5539832 30.833334 0 0 0 0
-51.635826 -78.043915 -5.5999274 30.4 0 0 0 0
-52.082043 -78.269447 -5.6382403 31.285715 0 0 0 0
-52.541893 -78.40641 -5.6683583 31.166666 0 0 0 0
-53.011341 -78.61776 -5.7059073 31.333334 0 0 0 0
-53.474396 -78.912987 -5.7512622 33.333332 0 0 0 0
-53.909401 -79.403595 -5.8145394 33 0 0 0 0
-48.859154 -75.961586 -5.2932787 23.75 0 0 0 0
-49.122356 -76.140991 -5.3208337 26.799999 0 0 0 0
-50.065582 -76.700027 -5.411077 28 0 0 0 0
-50.410759 -77.069664 -5.4598584 31 0 0 0 0
-50.712566 -77.342735 -5.4976315 29.333334 0 0 0 0
-53.430744 -78.595222 -5.7188168 49 0 0 0 0
-47.323284 -74.665672 -5.1073956 21.666666 0 0 0 0
-47.600166 -74.92321 -5.1433554 19 0 0 0 0
-47.953041 -75.325584 -5.196198 20.428572 0 0 0 0
-48.354187 -75.608902 -5.2394304 21.875 0 0 0 0
-48.651752 -75.781258 -5.2677817 21 0 0 0 0
-49.69474 -76.257896 -5.3542614 15.8 0 0 0 0
-46.171753 -73.567337 -4.9543395 15.75 0 0 0 0
-46.44677 -73.811707 -4.9893088 16.555555 0 0 0 0
-46.845032 -74.163452 -5.0395894 16.666666 0 0 0 0
-47.201416 -74.498108 -5.08634 18.200001 0 0 0 0
-42.776047 -71.378479 -4.5921698 17.25 0 0 0 0
-43.104603 -71.578102 -4.6269403 18.692308 0 0 0 0
-43.477661 -71.774384 -4.6632576 18.799999 0 0 0 0
-43.995789 -72.140572 -4.7222443 24.299999 0 0 0 0
-44.374668 -72.347916 -4.7592645 24.583334 0 0 0 0
-44.788536 -72.696716 -4.8111482 22.5 0 0 0 0
-45.255417 -72.845947 -4.8459392 18.307692 0 0 0 0
-45.714561 -72.990562 -4.8796358 19.727272 0 0 0 0
-46.007664 -73.34137 -4.9257479 15 0 0 0 0
-32.226906 -65.769455 -3.4398918 32.333332 0 0 0 0
-32.705132 -65.975342 -3.4893889 28.5 0 0 0 0
-33.020172 -66.128395 -3.5237186 33.5 0 0 0 0
-33.257057 -66.237854 -3.5488908 35 0 0 0 0
-33.942646 -66.580452 -3.6240978 31.571428 0 0 0 0
-34.362877 -66.78849 -3.669733 26.1 0 0 0 0
-34.650772 -66.907242 -3.6984303 28 0 0 0 0
-39.818813 -69.4384 -4.2544851 18.111111 0 0 0 0
-40.134453 -69.715874 -4.2984324 14.2 0 0 0 0
-40.531303 -70.035263 -4.3504004 12.6 0 0 0 0
-40.979549 -70.271912 -4.396481 16.6 0 0 0 0
-41.393085 -70.546234 -4.4440641 18.357143 0 0 0 0
-41.838024 -70.762169 -4.4871321 19.466667 0 0 0 0
-42.26302 -71.045067 -4.5353103 19.142857 0 0 0 0
-42.567692 -71.224304 -4.5673399 18.166666 0 0 0 0
-43.772552 -71.660873 -4.6659822 14.8 0 0 0 0
-43.848644 -71.829788 -4.685699 17 0 0 0 0
-30.19799 -64.506844 -3.1862147 13 0 0 0 0
-30.379765 -64.582214 -3.2050118 24.142857 0 0 0 0
-30.859098 -64.842651 -3.2611887 29.5 0 0 0 0
-31.346272 -65.024811 -3.3092539 32.42857 0 0 0 0
-31.739567 -65.317703 -3.363517 34.5 0 0 0 0
-32.215343 -65.516846 -3.4124374 46.599998 0 0 0 0
-32.569427 -65.788025 -3.4617369 36.42857 0 0 0 0
-32.813332 -66.002556 -3.4985218 29 0 0 0 0
-33.517803 -66.329666 -3.5735235 31.875 0 0 0 0
-33.848278 -66.505226 -3.6108451 33.666668 0 0 0 0
-34.988361 -66.919922 -3.7189126 32.57143 0 0 0 0
-35.312103 -67.109924 -3.7567849 30.1 0 0 0 0
-35.775372 -67.28862 -3.8011751 29.272728 0 0 0 0
-36.240673 -67.488396 -3.8475647 28.333334 0 0 0 0
-36.705132 -67.687408 -3.8935323 27.5 0 0 0 0
-37.165329 -67.866119 -3.9369082 28.75 0 0 0 0
-37.653927 -68.017807 -3.9788146 25.461538 0 0 0 0
-38.120029 -68.222763 -4.0335135 23.363636 0 0 0 0
-38.558643 -68.445839 -4.0874658 18.571428 0 0 0 0
-38.992901 -68.662476 -4.1330748 14.785714 0 0 0 0
-39.366066 -69.010468 -4.1879306 17.411764 0 0 0 0
-39.674477 -69.273613 -4.2305346 18.833334 0 0 0 0
-59.071571 -78.219856 -5.8727679 4 0 0 0 0
-30.461376 -63.910709 -3.1371553 8.3999996 0 0 0 0
-30.373188 -64.208054 -3.1642077 8.5 0 0 0 0
-58.997478 -78.006836 -5.8492155 54 0 0 0 0
-29.351923 -62.71566 -2.9409106 24 0 0 0 0
-29.587898 -62.892193 -2.9742959 21.4 0 0 0 0
-29.95034 -63.019501 -3.0097141 15 0 0 0 0
-30.523445 -63.425213 -3.0879653 8.5 0 0 0 0
-29.4172 -62.655304 -2.9381249 16 0 0 0 0
-29.996241 -62.684647 -2.97563 58 0 0 0 0
-30.22953 -63.077362 -3.0325639 19.5 0 0 0 0
-30.491871 -63.183777 -3.0597179 12.5 0 0 0 0
-29.624802 -61.942364 -2.8715692 28.714285 0 0 0 0
-30.106627 -62.221977 -2.9311135 34 0 0 0 0
-30.346087 -62.246719 -2.9480305 47.5 0 0 0 0
-30.762899 -62.394077 -2.9889932 10.333333 0 0 0 0
-54.740059 -73.773445 -5.2915359 34 0 0 0 0
-22.672327 -58.397083 -2.0564206 8 0 0 0 0
-22.958082 -58.243496 -2.0557947 14 0 0 0 0
-23.280661 -58.527103 -2.1074212 8 0 0 0 0
-24.108191 -58.673023 -2.1732521 12 0 0 0 0
-29.027889 -60.968552 -2.7275293 27.200001 0 0 0 0
-29.404104 -61.228336 -2.7789395 31.6 0 0 0 0
-29.667768 -61.503208 -2.8252637 28.428572 0 0 0 0
-30.019537 -61.70776 -2.8689015 40.5 0 0 0 0
-30.5832 -62.12574 -2.9487031 66 0 0 0 0
-54.809929 -73.743095 -5.2908201 19 0 0 0 0
-23.280685 -57.919724 -2.0377891 37.833332 0 0 0 0
-24.685987 -58.791924 -2.2211587 13 0 0 0 0
-25.39867 -58.950397 -2.2815912 16 0 0 0 0
-25.886984 -59.147743 -2.3331175 23.333334 0 0 0 0
-26.449423 -59.342339 -2.3887124 25 0 0 0 0
-26.799316 -59.485161 -2.4257612 25 0 0 0 0
-27.192339 -59.655354 -2.4684682 17.333334 0 0 0 0
-27.668568 -59.822948 -2.5158041 23 0 0 0 0
-28.799528 -60.420979 -2.6507144 13.5 0 0 0 0
-28.932505 -60.594112 -2.6781485 25.5 0 0 0 0
-29.69401 -60.793957 -2.7474794 57 0 0 0 0
-34.375149 -63.20808 -3.2914083 2.5 0 0 0 0
-47.492069 -69.387093 -4.6076097 16 0 0 0 0
-47.891232 -69.505501 -4.6345539 30.200001 0 0 0 0
-23.540991 -57.702549 -2.0282667 7 0 0 0 0
-23.793446 -57.525021 -2.0227885 7 0 0 0 0
-28.224669 -59.930721 -2.5610852 37 0 0 0 0
-28.752428 -60.111996 -2.6129925 7.1999998 0 0 0 0
-29.427994 -60.33857 -2.678781 3 0 0 0 0
-34.341862 -62.63686 -3.2273104 5 0 0 0 0
-34.632721 -62.84016 -3.2666335 20.4 0 0 0 0
-47.974503 -69.243187 -4.6124983 7 0 0 0 0
-24.160095 -57.194736 -2.0064008 7.8333335 0 0 0 0
-24.496534 -56.835075 -1.9847001 7.6666665 0 0 0 0
-24.67322 -56.62606 -1.9709147 10 0 0 0 0
-24.872408 -56.391155 -1.9553869 9.5714283 0 0 0 0
-25.21858 -56.0214 -1.9327605 11.333333 0 0 0 0
-25.493956 -55.611294 -1.9010662 12.125 0 0 0 0
-25.800566 -55.183537 -1.8689548 19.166666 0 0 0 0
-25.905336 -55.211517 -1.8784161 15 0 0 0 0
-26.017189 -54.939922 -1.8530486 13 0 0 0 0
-26.167854 -54.74847 -1.8393357 12.8 0 0 0 0
-26.448454 -54.398384 -1.8144413 12 0 0 0 0
-26.768496 -54.001301 -1.7861282 12 0 0 0 0
-27.04085 -53.594746 -1.7536941 12 0 0 0 0
-27.305399 -53.156712 -1.7168411 11.5 0 0 0 0
-27.592365 -52.7668 -1.6868316 12.857142 0 0 0 0
-27.749229 -52.562588 -1.6714202 13 0 0 0 0
-66.394127 -71.585625 -5.4095955 5 0 0 0 0
-27.971857 -52.356842 -1.6595533 11.375 0 0 0 0
-28.413057 -52.14048 -1.6589581 13.75 0 0 0 0
-28.729012 -52.099171 -1.6721796 7 0 0 0 0
-29.18362 -52.171745 -1.7071265 0 0 0 0 0
-43.340282 -59.121468 -3.0437088 25.588236 0 0 0 0
-43.418964 -59.124168 -3.2241578 42.86842 0 0 0 0
-70.844276 -72.341949 -5.6093254 14.75 0 0 0 0
-29.409138 -52.221016 -1.7260603 16 0 0 0 0
-29.837391 -52.312935 -1.7618061 18.666666 0 0 0 0
-30.329935 -52.41275 -1.8021884 5.5 0 0 0 0
-30.639641 -52.48431 -1.8286375 0 0 0 0 0
-43.468868 -58.892906 -3.1606858 36.142857 0 0 0 0
-43.507912 -58.932846 -3.1408017 40.407406 0 0 0 0
-60.162086 -66.643219 -4.7189798 13 0 0 0 0
-71.108917 -71.986938 -5.5786815 19.666666 0 0 0 0
-71.34922 -71.713409 -5.5559654 17 0 0 0 0
-44.339577 -57.889751 -3.1495416 60.34375 0 0 0 0
-45.244873 -58.39257 -3.2166786 24.083872 0 0 0 0
-44.457542 -57.654327 -3.1369603 37.833332 0 0 0 0
-45.414978 -58.186684 -3.173641 10.681818 0 0 0 0
-45.520916 -58.121811 -3.3494668 32.75 0 0 0 0
-38.01503 -53.728428 -2.3978877 19.333334 0 0 0 0
-32.739826 -50.543667 -1.7097465 4 0 0 0 0
-33.738873 -51.035442 -1.8263265 4.5 0 0 0 0
-34.246365 -51.317528 -1.8895286 7.5 0 0 0 0
-34.70816 -51.571762 -1.9467269 7.5 0 0 0 0
-35.157021 -51.823849 -2.0029311 8 0 0 0 0
-35.327316 -51.823261 -2.0122926 13.333333 0 0 0 0
-32.751343 -50.420071 -1.6950849 7.3333335 0 0 0 0
-35.379345 -51.610199 -1.9886588 11.5 0 0 0 0
-35.351433 -51.72995 -2.0020227 11 0 0 0 0
-36.656792 -51.493389 -2.044054 73 0 0 0 0
-33.346031 -49.438152 -1.605911 8.5 0 0 0 0
-34.421757 -49.695782 -1.697029 51 0 0 0 0
-36.248356 -50.398315 -1.8843248 43.400002 0 0 0 0
-36.856907 -50.578449 -1.9397457 45 0 0 0 0
-46.756294 -39.484825 -0.96614927 27.666666 0 0 0 0
-48.013588 -39.378586 -1.0038159 35 0 0 0 0
-48.308632 -39.475571 -1.028393 26.142857 0 0 0 0
-48.685947 -39.454597 -1.0407993 13.5 0 0 0 0
-47.894081 -38.833897 -0.92781162 21 0 0 0 0
-47.012897 -36.948578 -0.64532298 22 0 0 0 0
-47.253963 -37.32568 -0.70455313 19.75 0 0 0 0
-46.040222 -36.292713 -0.51901519 18.5 0 0 0 0
-46.309971 -36.332066 -0.53548574 21 0 0 0 0
-47.090008 -36.912258 -0.64376485 25 0 0 0 0
-48.917839 -36.841534 -0.7088781 13 0 0 0 0
-51.31694 -37.882648 -0.93861401 23 0 0 0 0
-47.685558 -35.997231 -0.54868484 33.400002 0 0 0 0
-49.309914 -36.512806 -0.68160766 23.75 0 0 0 0
-51.389919 -37.89555 -0.94308436 19 0 0 0 0
-52.060211 -35.478188 -0.65382373 14 0 0 0 0
-51.766647 -34.925896 -0.57064253 24 0 0 0 0
-52.137936 -35.504951 -0.6602717 24 0 0 0 0
-52.318905 -35.457905 -0.66102809 23.333334 0 0 0 0
-51.56802 -34.663517 -0.528808 28 0 0 0 0
-53.001053 -34.838943 -0.60627156 11 0 0 0 0
-53.206966 -35.0396 -0.6401124 24.666666 0 0 0 0
-53.515659 -35.327904 -0.68915445 18.75 0 0 0 0
-54.18515 -35.562832 -0.74450344 23 0 0 0 0
-53.241924 -34.91917 -0.62576258 24 0 0 0 0
-54.399391 -35.450592 -0.7378158 30 0 0 0 0
-54.611015 -35.480465 -0.74945664 17.75 0 0 0 0
-55.098614 -35.370544 -0.75299495 21 0 0 0 0
-55.625088 -35.538258 -0.79380614 18 0 0 0 0
-56.427109 -36.03756 -0.88715613 16 0 0 0 0
-55.380962 -35.221458 -0.74391276 11.666667 0 0 0 0
-56.298851 -35.687634 -0.83731002 8 0 0 0 0
-47.651539 -69.296768 -5.2254729 11.111111 0 0 0 0
-47.878574 -69.319756 -5.2414718 18 0 0 0 0
-47.973694 -69.205406 -5.2278814 15.125 0 0 0 0
-43.282505 -59.138676 -3.5688241 22.666666 0 0 0 0
-43.452969 -59.117764 -3.6914594 42.921051 0 0 0 0
-43.470486 -58.733891 -3.725049 40.777779 0 0 0 0
-43.562714 -58.921093 -3.6708393 27.722221 0 0 0 0
-44.356365 -57.898731 -3.608753 55.545456 0 0 0 0
-44.395569 -58.163948 -3.5015917 28.833334 0 0 0 0
-45.203369 -58.34539 -3.6888764 49.900002 0 0 0 0
-44.441738 -57.615463 -3.6010075 35.75 0 0 0 0
-45.427395 -58.101814 -3.6757705 35.108109 0 0 0 0
-29.731314 -70.53167 -5.1115966 1 0 0 0 0
-29.924683 -70.290787 -5.0774584 2.5999999 0 0 0 0
-36.40197 -73.480049 -5.5898314 2 0 0 0 0
-41.26749 -75.771095 -6.053318 1.6666666 0 0 0 0
-30.097528 -69.839279 -5.0141082 2.2 0 0 0 0
-36.674183 -72.992722 -5.5172448 0 0 0 0 0
-41.54155 -75.375595 -5.9962125 7.3333335 0 0 0 0
-30.27256 -69.381805 -4.9501972 2 0 0 0 0
-36.912506 -72.519409 -5.4464569 0 0 0 0 0
-41.838055 -74.954269 -5.9355941 6.25 0 0 0 0
-30.451221 -68.905968 -4.8840361 2 0 0 0 0
-37.12989 -72.084236 -5.3813844 0 0 0 0 0
-42.15712 -74.49704 -5.8698382 7.25 0 0 0 0
-30.612755 -68.455124 -4.8216934 2.3333333 0 0 0 0
-37.310822 -71.705437 -5.324676 1.5 0 0 0 0
-42.412266 -74.146782 -5.8198714 7 0 0 0 0
-28.416674 -66.742729 -4.6071906 6 0 0 0 0
-28.544613 -66.697647 -4.6003976 12.5 0 0 0 0
-30.771879 -67.991158 -4.7579207 3.5714285 0 0 0 0
-37.553291 -71.223587 -5.2527213 0 0 0 0 0
-42.694038 -73.773727 -5.7670736 4 0 0 0 0
-42.749756 -73.873695 -5.785244 2 0 0 0 0
-27.392067 -65.557617 -4.4637785 0 0 0 0 0
-28.621799 -66.281601 -4.5460539 2.2 0 0 0 0
-28.620167 -66.49086 -4.5730572 2.5 0 0 0 0
-30.9646 -67.498817 -4.6905231 4.1428571 0 0 0 0
-37.763359 -70.762314 -5.1836519 1.3333334 0 0 0 0
-43.232315 -73.237267 -5.6956625 24.1 0 0 0 0
-43.780006 -73.443932 -5.748107 33.727272 0 0 0 0
-44.17622 -73.733337 -5.8100505 28.700001 0 0 0 0
-44.420002 -73.989571 -5.8614688 15.666667 0 0 0 0
-27.716591 -65.592026 -4.4653893 0 0 0 0 0
-28.116606 -65.720749 -4.478374 0.2 0 0 0 0
-28.50572 -65.973679 -4.5074658 1.2 0 0 0 0
-29.664553 -66.446945 -4.5597186 0 0 0 0 0
-30.095291 -66.43084 -4.554565 2.25 0 0 0 0
-30.487751 -66.559517 -4.568706 2.3333333 0 0 0 0
-30.936888 -66.844902 -4.6034541 25.454546 0 0 0 0
-31.041265 -67.184853 -4.6480203 6 0 0 0 0
-37.970268 -70.349648 -5.122107 0 0 0 0 0
-36.670891 -69.194901 -4.9192972 0 0 0 0 0
-37.015511 -69.200821 -4.9330626 3.375 0 0 0 0
-37.376751 -69.332344 -4.9617138 8.625 0 0 0 0
-37.985703 -69.707542 -5.0236273 35.57143 0 0 0 0
-38.068958 -69.929955 -5.0584869 1.25 0 0 0 0
-30.296602 -65.385452 -4.4180608 10.5 0 0 0 0
-45.672188 -72.913361 -5.7324543 16.363636 0 0 0 0
-45.905617 -73.074158 -5.7690735 6 0 0 0 0
-43.779167 -71.624542 -5.4473076 3.75 0 0 0 0
-38.594891 -68.455429 -4.8376069 13.142858 0 0 0 0
-38.718773 -68.593674 -4.8597174 7.75 0 0 0 0
-54.789906 -73.62394 -6.3851504 28.333334 0 0 0 0
-28.610437 -60.158901 -3.8106205 17.5 0 0 0 0
-34.370384 -63.164955 -4.1040435 10 0 0 0 0
-34.621067 -62.71616 -4.0466542 27 0 0 0 0
-48.009022 -68.263588 -5.6466537 35 0 0 0 0
-48.140182 -68.202126 -5.6424422 34.42857 0 0 0 0
-48.477825 -68.265617 -5.6846523 27 0 0 0 0
-43.451729 -59.007359 -4.0362864 31.636364 0 0 0 0
-43.465752 -58.762344 -3.9713266 5.5 0 0 0 0
-43.517799 -58.851315 -4.064683 27.65 0 0 0 0
-60.185596 -66.55687 -5.794075 15.5 0 0 0 0
-44.384918 -57.895103 -3.9263978 19.75 0 0 0 0
-44.475277 -57.878136 -3.9232335 21.1 0 0 0 0
-45.225704 -58.284992 -4.0431314 26.454546 0 0 0 0
-38.033249 -53.663189 -3.1225936 27.5 0 0 0 0
-30.900196 -49.015182 -2.7398796 9 0 0 0 0
-31.037605 -49.047234 -2.742589 10 0 0 0 0
-31.311226 -49.113831 -2.7482395 12.666667 0 0 0 0
-31.775169 -49.227722 -2.7579861 8.5 0 0 0 0
-32.257282 -49.332733 -2.7671793 10.75 0 0 0 0
-32.785606 -49.45631 -2.7781041 59.799999 0 0 0 0
-33.34816 -49.627083 -2.7930026 59 0 0 0 0
-36.275059 -50.321552 -2.8595648 59.25 0 0 0 0
-37.349918 -86.453667 -7.694263 4 0 0 0 0
-37.621937 -86.035507 -7.6332307 9 0 0 0 0
-30.841608 -82.351219 -6.9047236 1 0 0 0 0
-37.865955 -85.690956 -7.5835061 8 0 0 0 0
-38.099564 -85.36528 -7.5366182 9 0 0 0 0
-23.620258 -76.371689 -6.0032854 2 0 0 0 0
-23.729288 -76.555908 -6.0299988 39 0 0 0 0
-26.673466 -77.387802 -6.1559682 0 0 0 0 0
-27.170088 -77.781662 -6.1959181 2.6666667 0 0 0 0
-31.84054 -79.930916 -6.5391755 0 0 0 0 0
-32.955399 -80.349922 -6.6200523 10 0 0 0 0
-34.146191 -81.029121 -6.7465796 35 0 0 0 0
-35.215633 -81.70208 -6.8738742 78.5 0 0 0 0
-35.853321 -81.775948 -6.8986907 0.66666669 0 0 0 0
-36.23101 -82.073753 -6.9547796 1 0 0 0 0
-36.318245 -82.426659 -7.0137343 197 0 0 0 0
-33.373711 -80.246727 -6.6100273 1.3333334 0 0 0 0
-33.703667 -80.408295 -6.6407242 3.4285715 0 0 0 0
-34.004856 -80.616188 -6.6785588 1 0 0 0 0
-29.779583 -70.694046 -5.1786184 1 0 0 0 0
-20.087767 -63.956581 -4.3355646 1.5 0 0 0 0
-20.620556 -64.047897 -4.3412795 2 0 0 0 0
-21.065729 -64.263184 -4.3627815 58 0 0 0 0
-23.205236 -65.186081 -4.4546733 4 0 0 0 0
-23.510529 -65.004532 -4.429625 13.333333 0 0 0 0
-55.707615 -80.720909 -7.5794063 3 0 0 0 0
-22.758293 -64.273094 -4.3477149 0.5 0 0 0 0
-23.215218 -64.381882 -4.3565135 0.66666669 0 0 0 0
-23.4734 -64.590515 -4.3793883 10 0 0 0 0
-26.32353 -65.680359 -4.4883094 5.75 0 0 0 0
-25.367811 -64.884178 -4.3977652 1 0 0 0 0
-25.617977 -64.963669 -4.4052968 2.3333333 0 0 0 0
-26.150869 -65.203651 -4.4302621 2.1666667 0 0 0 0
-26.343369 -65.448753 -4.4591165 87.666664 0 0 0 0
-45.823921 -72.741936 -6.5844555 7.5 0 0 0 0
-17.663586 -58.667282 -3.7571671 18 0 0 0 0
-43.790382 -71.551598 -6.236064 1 0 0 0 0
-43.824451 -71.561638 -6.2391443 0 0 0 0 0
-58.691784 -78.334457 -7.4080944 34 0 0 0 0
-58.821774 -78.63414 -7.4645219 15 0 0 0 0
-21.7997 -60.15847 -3.8797002 4 0 0 0 0
-38.579296 -68.369888 -5.5828462 8.625 0 0 0 0
-38.667988 -68.545494 -5.6153984 5.3333335 0 0 0 0
-58.625729 -77.89521 -7.3345933 34.400002 0 0 0 0
-22.085155 -59.756256 -3.8321199 17.5 0 0 0 0
-58.861526 -77.515205 -7.2928758 21.714285 0 0 0 0
-59.294342 -77.532494 -7.3279486 3 0 0 0 0
-21.962818 -59.565258 -3.8122606 3 0 0 0 0
-59.466019 -77.471802 -7.3314977 16.5 0 0 0 0
-47.723293 -70.100594 -6.0587783 16.5 0 0 0 0
-48.32008 -70.135468 -6.1090708 4 0 0 0 0
-34.353653 -63.1007 -4.9229369 10 0 0 0 0
-47.199783 -69.156448 -5.8013926 6.3333335 0 0 0 0
-47.287037 -69.302399 -5.8415956 12.2 0 0 0 0
-47.872814 -69.66272 -5.9656806 16.857143 0 0 0 0
-48.239017 -69.817459 -6.0283852 32 0 0 0 0
-34.698044 -62.612747 -4.8291583 23.166666 0 0 0 0
-47.784588 -68.850998 -5.7681451 33.5 0 0 0 0
-48.079868 -68.456215 -5.6971745 30 0 0 0 0
-48.497131 -68.50573 -5.7418685 21 0 0 0 0
-48.937485 -68.994492 -5.8921151 3 0 0 0 0
-48.688732 -68.311035 -5.7127671 26.5 0 0 0 0
-48.83997 -68.364746 -5.7382345 26.333334 0 0 0 0
-66.539299 -71.442703 -7.0326233 2 0 0 0 0
-66.713493 -71.242462 -7.0204706 194.5 0 0 0 0
-66.979454 -70.920631 -7.0000048 219.28572 0 0 0 0
-38.064964 -53.58567 -3.8486316 24 0 0 0 0
-30.484921 -48.846375 -2.7259202 38.333332 0 0 0 0
-26.403128 -40.660004 -2.0748665 5 0 0 0 0
-26.814484 -40.835087 -2.0904071 4 0 0 0 0
-27.54981 -40.425694 -2.0645051 13 0 0 0 0
-27.934298 -40.019104 -2.0372896 4.3333335 0 0 0 0
-28.811005 -40.650894 -2.0905809 19.666666 0 0 0 0
-29.131369 -40.583858 -2.0883574 26 0 0 0 0
-29.064352 -40.178699 -2.05831 27 0 0 0 0
-29.560078 -40.179138 -2.0629246 28.333334 0 0 0 0
-29.65406 -40.448174 -2.0831807 27 0 0 0 0
-29.673523 -39.8778 -2.0422988 22 0 0 0 0
-29.931231 -39.941338 -2.0494301 9 0 0 0 0
-37.112247 -41.536808 -2.2642941 31.666666 0 0 0 0
-37.292534 -41.289742 -2.2518356 28.6 0 0 0 0
-37.496918 -40.658932 -2.2151372 34.75 0 0 0 0
-37.639343 -40.556763 -2.2116368 16 0 0 0 0
-36.646484 -39.198734 -2.1019797 26.5 0 0 0 0
-37.12854 -38.920864 -2.0945041 0 0 0 0 0
-53.673359 -35.240799 -2.5375545 26.5 0 0 0 0
-54.030258 -35.219925 -2.5568368 26.5 0 0 0 0
-53.026024 -34.285034 -2.4407642 10 0 0 0 0
-53.194881 -34.556042 -2.4672425 24 0 0 0 0
-53.8172 -34.768974 -2.5159979 13 0 0 0 0
-54.375153 -34.978298 -2.561583 16.5 0 0 0 0
-54.705181 -35.192146 -2.5946369 35.200001 0 0 0 0
-55.010288 -35.089161 -2.6061773 23 0 0 0 0
-53.439693 -34.083736 -2.4513025 32 0 0 0 0
-53.717804 -34.363506 -2.4846907 21 0 0 0 0
-54.586082 -34.749107 -2.5593657 30 0 0 0 0
-55.537895 -34.893696 -2.6253321 7 0 0 0 0
-55.702686 -35.065834 -2.6464076 28.25 0 0 0 0
-55.456161 -34.61657 -2.602612 11 0 0 0 0
-56.144653 -34.648266 -2.646456 8.5 0 0 0 0
-57.757889 -35.566921 -2.8079154 13.666667 0 0 0 0
-58.104927 -35.717255 -2.8403454 10.5 0 0 0 0
-52.780178 -32.404343 -2.3095784 29 0 0 0 0
-53.007477 -32.620785 -2.3355246 23 0 0 0 0
-53.324772 -32.838783 -2.366698 24 0 0 0 0
-55.703465 -34.20063 -2.5908096 22 0 0 0 0
-56.707291 -34.549034 -2.6747565 24.333334 0 0 0 0
-56.957874 -34.410603 -2.6813624 29 0 0 0 0
-57.51215 -34.916824 -2.749377 38 0 0 0 0
-58.518776 -35.374916 -2.8446515 7.5 0 0 0 0
-53.137341 -32.480526 -2.3338957 37 0 0 0 0
-56.61842 -34.059849 -2.6375322 15 0 0 0 0
-57.300598 -34.29409 -2.6952636 14.2 0 0 0 0
-57.599052 -34.286018 -2.7135613 4 0 0 0 0
-28.528164 -86.534897 -7.5294523 13 0 0 0 0
-31.07288 -87.801399 -7.7716823 1 0 0 0 0
-28.273891 -86.213463 -7.4753995 33 0 0 0 0
-28.422829 -86.341614 -7.4975891 34 0 0 0 0
-30.900982 -87.411392 -7.7063279 25 0 0 0 0
-31.046814 -87.546806 -7.7305551 20 0 0 0 0
-12.215667 -64.06945 -4.4264288 2 0 0 0 0
-12.844819 -64.160957 -4.431004 26.5 0 0 0 0
-13.227669 -64.428848 -4.458951 23.5 0 0 0 0
-11.607304 -63.02047 -4.309721 11.666667 0 0 0 0
-63.014992 -86.493607 -9.0030718 18 0 0 0 0
-63.097778 -86.35154 -8.9866285 24 0 0 0 0
-63.223854 -86.274651 -8.983593 16 0 0 0 0
-63.839565 -86.471367 -9.0590448 8 0 0 0 0
-15.207896 -62.705635 -4.2369323 2 0 0 0 0
-69.614494 -87.657921 -9.6765213 16 0 0 0 0
-71.361313 -87.1147 -9.730032 23 0 0 0 0
-67.399277 -84.696045 -9.0512133 255 0 0 0 0
-69.802177 -86.297203 -9.4830761 39 0 0 0 0
-71.099754 -86.677086 -9.6429634 5 0 0 0 0
-67.592026 -84.451469 -9.0288057 255 0 0 0 0
-70.873978 -85.957336 -9.5160217 7 0 0 0 0
-71.664413 -86.265625 -9.6255398 23 0 0 0 0
-67.848488 -84.015465 -8.9823856 79.25 0 0 0 0
-71.078041 -85.445526 -9.4549599 25.5 0 0 0 0
-73.663765 -86.71946 -9.8543577 10 0 0 0 0
-30.298717 -65.208801 -5.5369024 4 0 0 0 0
-45.797245 -72.81559 -6.6009212 10.166667 0 0 0 0
-46.018219 -72.866882 -6.6228237 17 0 0 0 0
-71.189445 -85.163063 -9.4213276 29 0 0 0 0
-72.131271 -85.755005 -9.5860214 16 0 0 0 0
-72.529518 -85.894119 -9.6389952 25 0 0 0 0
-45.873211 -69.430328 -6.4415417 18.25 0 0 0 0
-47.008537 -70.082077 -6.7089128 16.5 0 0 0 0
-45.943432 -69.350769 -6.4198098 17 0 0 0 0
-46.12405 -69.253067 -6.3980508 10.727273 0 0 0 0
-46.810402 -69.33239 -6.4622793 17.25 0 0 0 0
-54.738346 -73.507263 -7.4930258 16.666666 0 0 0 0
-46.937752 -68.454041 -6.1973662 20.5 0 0 0 0
-47.1348 -68.492058 -6.2239032 23.714285 0 0 0 0
-47.461235 -68.664902 -6.3026814 25 0 0 0 0
-48.261692 -68.956001 -6.4642134 22.142857 0 0 0 0
-48.752457 -69.226967 -6.5965366 30 0 0 0 0
-48.885181 -69.273315 -6.6248088 29.125 0 0 0 0
-46.693684 -67.798775 -6.5587854 25 0 0 0 0
-47.253819 -68.2687 -6.1634545 29.285715 0 0 0 0
-47.886116 -68.253624 -6.2134433 27.333334 0 0 0 0
-48.168339 -68.263168 -6.2437158 32 0 0 0 0
-48.543056 -68.869308 -6.4661942 32.5 0 0 0 0
-47.742733 -67.570419 -6.5712914 35 0 0 0 0
-48.314472 -68.186928 -6.2359128 29.666666 0 0 0 0
-47.948742 -67.266739 -6.4802136 32.466667 0 0 0 0
-48.357227 -67.362091 -6.5710034 32 0 0 0 0
-48.132202 -67.024437 -6.4120827 30.833334 0 0 0 0
-48.252724 -67.098198 -6.4564514 35 0 0 0 0
-17.601952 -49.798523 -2.8598354 26 0 0 0 0
-60.00843 -66.83815 -6.9225678 3.2 0 0 0 0
-60.168846 -66.507446 -6.8934112 255 0 0 0 0
-60.363281 -66.215523 -6.8767843 130 0 0 0 0
-15.150065 -43.453209 -2.2984204 34 0 0 0 0
-36.293903 -50.232857 -3.8370917 43 0 0 0 0
-50.973381 -31.620546 -2.1656942 37.333332 0 0 0 0
-51.219109 -31.819046 -2.1905506 24.5 0 0 0 0
-52.105183 -32.074238 -2.2527225 31 0 0 0 0
-52.6633 -32.304588 -2.2970109 26.5 0 0 0 0
-50.265434 -30.709295 -2.0739961 31 0 0 0 0
-50.647358 -30.924702 -2.1063261 30 0 0 0 0
-50.866669 -31.143209 -2.1308343 26 0 0 0 0
-51.444633 -31.619394 -2.1898839 16 0 0 0 0
-51.884407 -31.671139 -2.2160566 20.75 0 0 0 0
-52.420841 -31.928282 -2.2605102 20.333334 0 0 0 0
-52.835712 -32.177307 -2.2984717 27.666666 0 0 0 0
-53.346592 -32.222878 -2.3293221 26 0 0 0 0
-49.52446 -29.692493 -1.9754481 33 0 0 0 0
-49.974869 -30.017614 -2.0172274 9 0 0 0 0
-50.636238 -30.495369 -2.079329 22.5 0 0 0 0
-52.114914 -31.141169 -2.1953337 5 0 0 0 0
-52.323547 -31.512445 -2.2294524 3 0 0 0 0
-58.125172 -33.785519 -2.7141976 20 0 0 0 0
-59.53426 -34.57943 -2.8585725 10.5 0 0 0 0
-59.789368 -34.834297 -2.8926971 11.5 0 0 0 0
-60.109814 -34.775509 -2.9102416 11 0 0 0 0
-73.583061 -41.465145 -4.4571691 13 0 0 0 0
-49.661095 -29.37871 -1.9628129 32 0 0 0 0
-50.198238 -29.821806 -2.0161698 17 0 0 0 0
-58.211014 -33.820141 -2.7219558 20 0 0 0 0
-59.2728 -34.178387 -2.8145168 24 0 0 0 0
-59.452568 -34.235226 -2.8301566 17.666666 0 0 0 0
-49.863873 -28.954655 -1.9466431 20.5 0 0 0 0
-59.205685 -33.471577 -2.7631571 13 0 0 0 0
-59.047722 -33.032059 -2.723825 9.5 0 0 0 0
-58.684345 -32.086544 -2.6383491 1 0 0 0 0
-49.659512 -27.195782 -1.8290758 8.5 0 0 0 0
-54.932907 -29.58136 -2.2522597 6 0 0 0 0
-59.310577 -31.667871 -2.6508112 6 0 0 0 0
-49.436962 -26.782486 -1.7931843 18 0 0 0 0
-57.842407 -30.761007 -2.4994531 17 0 0 0 0
-57.208454 -29.554932 -2.3833139 27 0 0 0 0
-62.394096 -31.704384 -2.8571503 4 0 0 0 0
-55.558353 -27.8197 -2.1767321 2 0 0 0 0
-30.292946 -105.77721 -10.663829 7 0 0 0 0
-30.582153 -105.86426 -10.685708 10.666667 0 0 0 0
-24.497688 -100.71008 -9.7132893 7 0 0 0 0
-28.621929 -102.70972 -10.1228 2 0 0 0 0
-24.534555 -100.3402 -9.6548166 6 0 0 0 0
-58.569477 -105.60467 -11.811748 176.5 0 0 0 0
-58.751804 -105.43157 -11.793769 255 0 0 0 0
-58.987354 -105.18189 -11.76636 255 0 0 0 0
-59.221786 -104.93505 -11.739434 19 0 0 0 0
-50.387531 -99.808876 -10.418086 15 0 0 0 0
-50.914169 -99.97702 -10.471977 12 0 0 0 0
-59.736565 -104.36683 -11.67638 88.5 0 0 0 0
-50.634369 -99.762672 -10.422579 30 0 0 0 0
-59.907696 -104.18376 -11.656477 151 0 0 0 0
-60.072956 -103.98689 -11.634028 160.5 0 0 0 0
-60.347446 -103.66501 -11.597696 102 0 0 0 0
-0.14092273 -60.371117 -4.1236615 10 0 0 0 0
-70.160271 -90.825905 -10.206455 19 0 0 0 0
-70.571556 -90.696243 -10.217561 19.75 0 0 0 0
-71.245087 -90.972679 -10.311454 25 0 0 0 0
-72.783302 -91.793671 -10.55563 7 0 0 0 0
-71.16465 -90.585693 -10.245671 19 0 0 0 0
-71.708038 -90.837959 -10.326115 18 0 0 0 0
-71.875122 -90.358238 -10.265258 19 0 0 0 0
-73.761841 -89.793526 -10.326196 13 0 0 0 0
-73.836174 -89.319664 -10.260168 28 0 0 0 0
-74.197525 -89.232994 -10.275736 13 0 0 0 0
-74.449341 -89.395996 -10.320388 9 0 0 0 0
-38.470123 -68.511719 -6.3973751 0 0 0 0 0
-43.742615 -71.465073 -7.0239649 0 0 0 0 0
-38.440247 -68.273476 -6.3385692 9.1000004 0 0 0 0
-46.675354 -72.005173 -7.2880831 16.333334 0 0 0 0
-46.787304 -72.103348 -7.3252926 21.5 0 0 0 0
-46.907413 -71.982635 -7.2948742 25.5 0 0 0 0
-48.34523 -71.758095 -7.3318195 25.555555 0 0 0 0
-48.597698 -71.941826 -7.4104977 20 0 0 0 0
-5.9316597 -50.213146 -2.9901216 39.5 0 0 0 0
-45.356068 -69.218887 -7.0470314 8 0 0 0 0
-45.518753 -69.019875 -6.9741449 6 0 0 0 0
-28.620207 -59.990597 -4.9994764 15.333333 0 0 0 0
-34.289532 -62.760796 -5.7289863 11.333333 0 0 0 0
-34.908398 -63.002087 -5.6751003 28.666666 0 0 0 0
-33.961693 -62.289204 -5.7082152 16 0 0 0 0
-34.448067 -62.513359 -5.6684737 19 0 0 0 0
-46.495159 -67.954865 -6.6055293 28 0 0 0 0
-46.56802 -68.323883 -6.7556186 22.777779 0 0 0 0
-47.09589 -68.252296 -6.7692423 18.333334 0 0 0 0
-83.244453 -85.606766 -10.493251 255 0 0 0 0
-34.436806 -61.935184 -5.5873566 3 0 0 0 0
-46.564022 -67.922585 -6.5977159 22.6 0 0 0 0
-46.879807 -67.973724 -6.642127 22.299999 0 0 0 0
-47.353519 -68.125969 -6.7444491 15.384615 0 0 0 0
-83.387405 -85.360519 -10.470344 255 0 0 0 0
-47.596409 -67.779152 -6.63515 24.333334 0 0 0 0
-83.647064 -84.93634 -10.432261 255 0 0 0 0
-48.74894 -67.579147 -6.7087011 26.4 0 0 0 0
-49.171864 -67.714531 -6.824348 21.714285 0 0 0 0
-83.830414 -84.632233 -10.40487 255 0 0 0 0
-49.211109 -67.553139 -6.7710276 29.333334 0 0 0 0
-6.1602101 -44.980556 -2.4834306 16 0 0 0 0
-38.110935 -53.500084 -4.5853405 14.75 0 0 0 0
-38.138565 -53.414112 -4.5840359 1 0 0 0 0
-33.355152 -49.534336 -3.950243 49 0 0 0 0
-33.402714 -49.471992 -3.9459271 36 0 0 0 0
-84.191277 -51.315903 -6.3297162 8 0 0 0 0
-84.233719 -51.114941 -6.3132787 9 0 0 0 0
-84.707672 -50.544788 -6.2998538 6 0 0 0 0
-60.569267 -24.6063 -2.2691519 10 0 0 0 0
-45.854988 -16.782846 -1.0245215 29 0 0 0 0
-46.129021 -17.080402 -1.0541598 18 0 0 0 0
-44.65929 -15.923583 -0.92295712 11 0 0 0 0
-45.155071 -16.139439 -0.95632231 33.5 0 0 0 0
-45.365795 -16.20389 -0.96892488 27 0 0 0 0
-53.709412 -20.501116 -1.6199139 6 0 0 0 0
-59.971157 -21.594957 -2.0388927 23 0 0 0 0
-46.933739 -14.868044 -0.95384276 50 0 0 0 0
-47.144505 -15.050686 -0.97408265 33.5 0 0 0 0
-26.734791 -106.06977 -10.623611 3 0 0 0 0
-27.382063 -105.45395 -10.538854 4.6666665 0 0 0 0
-27.968761 -105.49931 -10.560126 10.666667 0 0 0 0
-28.324734 -105.6356 -10.59088 12 0 0 0 0
-28.775534 -105.95236 -10.65353 11 0 0 0 0
-29.217133 -106.08076 -10.685541 6 0 0 0 0
-43.064251 -112.79653 -12.250426 14 0 0 0 0
-28.543123 -105.70496 -10.607507 11 0 0 0 0
-29.504078 -105.96143 -10.673409 8.5 0 0 0 0
-29.920521 -105.92571 -10.678337 9 0 0 0 0
-43.397522 -112.76757 -12.259141 22 0 0 0 0
-43.643715 -112.82624 -12.27895 26.5 0 0 0 0
-74.662582 -108.07011 -13.240996 155 0 0 0 0
-74.874496 -107.74117 -13.203666 183.5 0 0 0 0
-74.988106 -107.4241 -13.161403 5 0 0 0 0
-76.06382 -106.66839 -13.118256 36 0 0 0 0
6.8766117 -65.273567 -4.757844 5.5 0 0 0 0
-55.717106 -80.564659 -9.1645212 1 0 0 0 0
-38.389477 -68.212257 -7.1566906 11.7 0 0 0 0
-21.625473 -59.352165 -5.4909272 9 0 0 0 0
-22.060963 -59.930561 -5.5187659 2.5 0 0 0 0
-21.570934 -59.197708 -5.4788013 15 0 0 0 0
-22.370714 -59.574287 -5.4551153 9 0 0 0 0
-34.994438 -63.578449 -6.5863776 39 0 0 0 0
-35.505962 -64.197372 -6.6005077 35.5 0 0 0 0
-35.01292 -63.037624 -6.4828429 36 0 0 0 0
-35.151897 -63.194141 -6.4808493 29.333334 0 0 0 0
-35.619694 -63.489372 -6.4352393 30.666666 0 0 0 0
-35.445938 -62.942707 -6.3716145 24.333334 0 0 0 0
-35.806431 -62.3759 -6.1949306 29.90909 0 0 0 0
-36.03577 -62.633045 -6.1878548 28.428572 0 0 0 0
-35.531586 -61.932869 -6.1854072 23.200001 0 0 0 0
-35.701183 -62.103382 -6.174161 25 0 0 0 0
0.91658652 -39.07444 -1.9809649 3 0 0 0 0
0.83575344 -38.667316 -1.9435955 21 0 0 0 0
1.7135053 -37.614773 -1.8530018 14 0 0 0 0
1.1911546 -38.048985 -1.8895264 11 0 0 0 0
0.72068292 -38.453915 -1.9236964 19 0 0 0 0
1.682348 -37.261566 -1.8210945 22 0 0 0 0
1.2168106 -37.673107 -1.8558052 8 0 0 0 0
0.59274971 -37.070885 -1.7989416 7 0 0 0 0
-38.088509 -53.419365 -5.3445482 7 0 0 0 0
-38.105835 -53.435482 -5.3408484 20 0 0 0 0
-39.420033 -12.800786 -0.53510571 17.666666 0 0 0 0
-40.55648 -12.016629 -0.52750695 44 0 0 0 0
-40.81237 -12.245858 -0.55083019 36 0 0 0 0
-41.149265 -12.544188 -0.58140749 32 0 0 0 0
-41.550034 -12.754438 -0.60908729 25 0 0 0 0
-39.594738 -11.161 -0.4407241 48 0 0 0 0
-40.035076 -11.544062 -0.47983673 44.333332 0 0 0 0
-40.384388 -11.863281 -0.51190561 42 0 0 0 0
-41.974838 -12.375406 -0.60186052 24 0 0 0 0
-42.254627 -12.033993 -0.59161502 33 0 0 0 0
-42.396729 -11.871251 -0.58710414 36 0 0 0 0
-42.611591 -11.623981 -0.58026111 30 0 0 0 0
-42.974617 -11.212613 -0.56921804 9.666667 0 0 0 0
-44.223007 -11.27645 -0.62242699 5 0 0 0 0
-44.676041 -10.74704 -0.60849476 9 0 0 0 0
-44.82935 -10.571537 -0.60405678 12 0 0 0 0
-45.531525 -9.592063 -0.57336789 5.5 0 0 0 0
-46.425663 -8.5036745 -0.54468989 10 0 0 0 0
-46.679272 -8.0192652 -0.5260092 10 0 0 0 0
-46.935024 -7.6277618 -0.51312983 9 0 0 0 0
-47.634583 -6.6299539 -0.48266402 9 0 0 0 0
-47.815052 -6.3360448 -0.47265315 12 0 0 0 0
-72.392609 -17.984753 -2.6086104 11 0 0 0 0
-73.125443 -18.442221 -2.6916332 15 0 0 0 0
-73.345222 -18.822943 -2.7336175 20 0 0 0 0
-48.088234 -5.9262905 -0.45969495 14.5 0 0 0 0
-71.276489 -17.092304 -2.470355 6 0 0 0 0
-71.754204 -17.214813 -2.511528 7 0 0 0 0
-71.890106 -17.295656 -2.5264306 4 0 0 0 0
-73.03035 -18.15349 -2.6649275 11 0 0 0 0
-48.36293 -5.5616274 -0.44960719 13 0 0 0 0
-71.276184 -16.778055 -2.4489489 10 0 0 0 0
-72.573914 -17.391851 -2.5804408 9 0 0 0 0
-48.645126 -5.1266994 -0.43564156 13 0 0 0 0
-71.188011 -15.968532 -2.3879898 11 0 0 0 0
-74.947151 -17.567411 -2.7600107 16 0 0 0 0
-48.930332 -4.7050018 -0.42267409 14 0 0 0 0
-74.614128 -17.187353 -2.7097595 9 0 0 0 0
-75.028137 -17.154737 -2.7369421 15 0 0 0 0
-75.645302 -17.26767 -2.7890005 9 0 0 0 0
-49.217899 -4.3207879 -0.4121685 12.5 0 0 0 0
-49.514069 -3.854183 -0.39708617 13 0 0 0 0
-76.814377 -16.896004 -2.8471005 26 0 0 0 0
-77.062447 -16.836269 -2.860853 6 0 0 0 0
-49.811863 -3.4370828 -0.38516936 12.5 0 0 0 0
-77.095688 -16.204086 -2.8186195 16 0 0 0 0
-77.923203 -16.217369 -2.8795707 3 0 0 0 0
-76.143936 -15.183089 -2.6787698 3 0 0 0 0
-77.296486 -15.469189 -2.7813416 11 0 0 0 0
-75.412605 -14.104785 -2.5522108 3 0 0 0 0
-74.181099 -12.458023 -2.3537099 8 0 0 0 0
-76.049202 -12.771258 -2.5047152 6 0 0 0 0
-74.050591 -10.550294 -2.2152367 4 0 0 0 0
-54.242435 -120.08252 -13.970285 19 0 0 0 0
-65.541206 -117.33209 -14.141997 46 0 0 0 0
-65.456589 -117.67405 -14.192781 20 0 0 0 0
-65.898376 -117.19685 -14.141443 24.333334 0 0 0 0
20.363136 -64.178429 -4.7659993 11.5 0 0 0 0
19.903212 -63.742863 -4.7111387 11.5 0 0 0 0
19.508005 -63.417847 -4.6697588 10 0 0 0 0
19.127003 -63.097401 -4.6291308 9.5 0 0 0 0
18.813858 -62.68195 -4.5783982 9 0 0 0 0
-35.819469 -87.104134 -9.7968817 10 0 0 0 0
20.453287 -59.735558 -4.2617416 4 0 0 0 0
-35.801105 -86.901848 -9.7502699 2 0 0 0 0
20.315113 -57.879059 -4.0538368 5 0 0 0 0
20.204512 -56.851173 -3.9395499 5 0 0 0 0
20.247942 -56.538334 -3.9057131 5 0 0 0 0
20.2621 -56.22694 -3.8718064 4 0 0 0 0
20.186029 -55.403786 -3.7814136 4 0 0 0 0
-45.973755 -73.18679 -8.6308489 10 0 0 0 0
-46.113358 -73.009117 -8.5680819 7.3333335 0 0 0 0
-46.317333 -73.086365 -8.6094007 13.5 0 0 0 0
-30.363161 -65.055496 -6.6724191 1 0 0 0 0
-43.831753 -71.399879 -7.880868 0 0 0 0 0
16.841721 -41.410217 -2.3097498 29 0 0 0 0
16.780905 -41.214581 -2.2902241 29 0 0 0 0
-34.693127 -63.425484 -6.6229434 19.666666 0 0 0 0
-34.849667 -63.618221 -6.6252155 27.333334 0 0 0 0
-54.668232 -73.323906 -8.5804901 17.5 0 0 0 0
-28.659687 -59.880848 -6.2100515 17 0 0 0 0
-34.744076 -63.20594 -6.5716734 29.666666 0 0 0 0
-34.100006 -61.984089 -6.5124259 11 0 0 0 0
-34.364082 -61.863358 -6.4354935 27.666666 0 0 0 0
-27.311693 -43.267303 -4.0474973 20 0 0 0 0
-27.365993 -42.990108 -4.0368671 23.6 0 0 0 0
-28.009502 -43.120201 -4.0111375 26.5 0 0 0 0
-27.471586 -42.194359 -4.0099344 28 0 0 0 0
-27.321287 -42.614113 -4.0281734 8 0 0 0 0
-27.991207 -42.658413 -3.9994812 23 0 0 0 0
-27.303944 -41.909843 -4.0097399 24 0 0 0 0
-28.008018 -42.050148 -3.9829721 25 0 0 0 0
-28.096388 -42.256584 -3.9844229 26.5 0 0 0 0
-28.695488 -42.428413 -3.9633999 25.666666 0 0 0 0
-29.108591 -42.012741 -3.9368916 10.5 0 0 0 0
-28.593195 -41.258179 -3.940387 31 0 0 0 0
-29.236633 -41.744617 -3.9259999 20.333334 0 0 0 0
-29.578279 -41.660728 -3.9112713 25.200001 0 0 0 0
-29.910276 -41.389099 -3.8937268 27.333334 0 0 0 0
-30.153839 -41.133099 -3.8803506 25.333334 0 0 0 0
-30.314312 -41.02113 -3.8728716 30.5 0 0 0 0
-53.893635 -33.325016 -4.4133496 33 0 0 0 0
-54.026451 -33.499763 -4.4229741 12.666667 0 0 0 0
-56.90435 -35.056061 -4.6633739 24 0 0 0 0
-57.948078 -34.341389 -4.7582035 4.5 0 0 0 0
-50.116119 -2.9815209 -0.37125957 14 0 0 0 0
-50.421162 -2.5794809 -0.36072597 13.5 0 0 0 0
-50.735561 -2.1072118 -0.34639734 12 0 0 0 0
-50.947609 -1.7960067 -0.33722043 13 0 0 0 0
-51.270229 -1.3247203 -0.3234539 13 0 0 0 0
-51.594212 -0.88280654 -0.31160724 13 0 0 0 0
-51.81694 -0.54682493 -0.30153811 13 0 0 0 0
-95.512558 -21.352842 -4.6519542 5.5 0 0 0 0
-95.7537 -21.790527 -4.7076445 6 0 0 0 0
-52.038177 -0.24740382 -0.29366496 13 0 0 0 0
-96.082512 -21.281961 -4.6937757 7 0 0 0 0
-96.73143 -21.282988 -4.7481456 8 0 0 0 0
-52.48904 0.37288004 -0.2770986 6 0 0 0 0
-95.347496 -20.340401 -4.5564489 14 0 0 0 0
-99.809845 -22.292994 -5.0912356 11 0 0 0 0
-100.00772 -22.532446 -5.128046 12 0 0 0 0
-100.26693 -22.729309 -5.1665955 8 0 0 0 0
-90.469551 -17.180735 -3.9107914 12.5 0 0 0 0
-99.846375 -22.012918 -5.0710397 8 0 0 0 0
-74.492043 -9.2013655 -2.1538949 5 0 0 0 0
-90.254059 -16.71002 -3.8574867 15 0 0 0 0
-90.445137 -16.795462 -3.8792374 8 0 0 0 0
-98.150253 -20.444654 -4.7986579 9 0 0 0 0
-101.60194 -22.312807 -5.2457418 8 0 0 0 0
-91.26226 -16.820183 -3.9463215 7 0 0 0 0
-90.018227 -14.848048 -3.6969903 13.5 0 0 0 0
-90.393982 -14.888796 -3.729641 19 0 0 0 0
-90.706886 -15.139096 -3.7733591 8 0 0 0 0
-97.454529 -18.354792 -4.5714049 6 0 0 0 0
-89.871338 -14.281445 -3.6426237 7 0 0 0 0
-89.863991 -14.578117 -3.664454 7 0 0 0 0
-94.874969 -16.478664 -4.2108769 9 0 0 0 0
-94.943932 -16.693272 -4.2333293 9 0 0 0 0
-95.492661 -16.756716 -4.2829976 8 0 0 0 0
-96.081474 -17.3407 -4.3773088 7 0 0 0 0
-97.996735 -18.451283 -4.624135 5 0 0 0 0
-94.726852 -16.195763 -4.1767001 9.5 0 0 0 0
-95.484039 -16.487627 -4.2611012 8 0 0 0 0
-96.282532 -16.754005 -4.3472919 8 0 0 0 0
-91.904625 -14.213853 -3.7975378 15 0 0 0 0
-93.665123 -15.072434 -4.0037179 12 0 0 0 0
-94.190208 -15.144075 -4.0514269 10 0 0 0 0
-94.742577 -15.196002 -4.0999374 10 0 0 0 0
-92.114655 -13.415729 -3.7533464 8 0 0 0 0
-58.408844 -134.37993 -16.550406 8 0 0 0 0
-57.819275 -133.72063 -16.410835 11 0 0 0 0
-58.833645 -134.04855 -16.517689 14 0 0 0 0
-58.650246 -129.17157 -15.701711 6 0 0 0 0
-58.888569 -129.23833 -15.725312 9 0 0 0 0
-63.336006 -131.51694 -16.342312 10 0 0 0 0
22.834038 -66.138733 -5.0185113 12 0 0 0 0
22.48844 -65.896698 -4.9867959 9 0 0 0 0
22.00531 -64.796829 -4.8540754 10 0 0 0 0
-32.144711 -88.022163 -10.026053 16 0 0 0 0
-32.277889 -88.081459 -10.038013 12 0 0 0 0
21.177729 -62.233803 -4.5512519 9 0 0 0 0
-32.067486 -87.74662 -9.9648695 8 0 0 0 0
-40.316692 -91.699142 -10.925015 20 0 0 0 0
-40.634773 -91.631752 -10.916404 20.25 0 0 0 0
-22.176636 -82.30484 -9.089385 3 0 0 0 0
-40.895287 -91.590782 -10.912945 26 0 0 0 0
-41.263191 -91.497131 -10.900081 33.666668 0 0 0 0
-41.608425 -91.546921 -10.921012 5 0 0 0 0
-21.837713 -81.796753 -9.0063028 15.5 0 0 0 0
-22.181213 -81.893723 -9.0084028 29.75 0 0 0 0
-30.515963 -85.50399 -9.4903116 3 0 0 0 0
-30.863503 -85.290054 -9.4361944 3 0 0 0 0
-31.575378 -85.608879 -9.4937019 12 0 0 0 0
-31.912045 -86.035553 -9.5833378 1 0 0 0 0
-32.693783 -86.12352 -9.5923367 5 0 0 0 0
-35.433006 -87.103012 -9.7967186 4 0 0 0 0
21.015976 -53.233322 -3.5557823 9 0 0 0 0
21.066092 -52.804939 -3.5105393 12.666667 0 0 0 0
20.932705 -52.291943 -3.4546289 13.5 0 0 0 0
20.821526 -51.777168 -3.3989747 16 0 0 0 0
20.75526 -51.150723 -3.3321793 30 0 0 0 0
20.772806 -51.360222 -3.3544347 35 0 0 0 0
20.716629 -50.731972 -3.2877736 25.666666 0 0 0 0
20.764215 -50.086609 -3.2205949 5 0 0 0 0
20.737711 -50.303703 -3.2430549 7 0 0 0 0
25.330383 -47.304371 -2.974685 10 0 0 0 0
20.845089 -49.646515 -3.1754358 13.666667 0 0 0 0
25.309759 -46.73262 -2.9156601 21.5 0 0 0 0
25.34708 -47.071087 -2.9508047 17 0 0 0 0
21.065647 -49.073154 -3.1178677 23 0 0 0 0
25.236679 -46.285629 -2.8691506 16 0 0 0 0
25.100073 -45.851639 -2.8235373 13.5 0 0 0 0
25.509441 -44.950809 -2.7355173 8 0 0 0 0
24.913815 -45.428646 -2.7787447 9.5 0 0 0 0
-62.341278 -87.023178 -11.291391 16 0 0 0 0
-62.410515 -86.760574 -11.241168 17.333334 0 0 0 0
-63.322712 -87.341515 -11.468742 22 0 0 0 0
26.959028 -43.196247 -2.5710409 16 0 0 0 0
25.058193 -44.352291 -2.6708822 8 0 0 0 0
27.10121 -42.800468 -2.5325241 14.5 0 0 0 0
-63.97514 -85.130638 -11.063271 10 0 0 0 0
-64.104614 -84.978035 -11.045629 15 0 0 0 0
-64.256004 -84.936127 -11.05439 15 0 0 0 0
-45.933197 -73.306725 -8.6760283 9 0 0 0 0
-110.72569 -101.34307 -15.115685 6 0 0 0 0
-105.2588 -97.651039 -14.116228 10 0 0 0 0
-107.0766 -98.515663 -14.397079 25 0 0 0 0
-107.34965 -98.282616 -14.387888 51.5 0 0 0 0
-107.52623 -97.856804 -14.343119 50 0 0 0 0
-107.64709 -97.399071 -14.289119 29 0 0 0 0
-107.87736 -97.007225 -14.254139 48.5 0 0 0 0
-108.04515 -96.579391 -14.208763 50.5 0 0 0 0
20.823601 -34.096306 -1.6406446 15 0 0 0 0
-108.27022 -96.185173 -14.17329 47 0 0 0 0
-109.59488 -96.540794 -14.339817 15 0 0 0 0
-108.67822 -95.633377 -14.132101 15.5 0 0 0 0
-106.97824 -94.056725 -13.761891 12 0 0 0 0
-108.82241 -95.32383 -14.101646 6 0 0 0 0
-109.03536 -94.793701 -14.046684 7.5 0 0 0 0
-109.23676 -94.387115 -14.008067 9.5 0 0 0 0
-116.37711 -89.359955 -13.965289 41 0 0 0 0
-116.71275 -89.106735 -13.961989 39 0 0 0 0
-117.43099 -89.003197 -14.013659 11 0 0 0 0
-24.332941 -40.602913 -4.1084089 28 0 0 0 0
-27.729729 -37.389462 -3.8965254 28.333334 0 0 0 0
-57.884727 -34.153828 -4.7518373 26 0 0 0 0
-58.141376 -34.246151 -4.7760677 9 0 0 0 0
-52.583389 -31.085062 -4.3284006 20.799999 0 0 0 0
-52.80146 -31.395216 -4.3418903 30 0 0 0 0
-50.261787 -28.930714 -4.1940684 12.5 0 0 0 0
-59.503483 -33.449066 -4.903553 14 0 0 0 0
-49.617477 -27.982359 -4.1644263 13.5 0 0 0 0
-50.552296 -28.671444 -4.2132883 23 0 0 0 0
-50.795902 -28.742653 -4.2274671 29.5 0 0 0 0
-51.236225 -28.239084 -4.2581811 30.333334 0 0 0 0
-51.452843 -28.187885 -4.272079 13 0 0 0 0
-54.632824 -29.923134 -4.4828877 22.5 0 0 0 0
-59.403969 -32.45229 -4.8900657 3 0 0 0 0
-119.13881 -60.668633 -10.656305 16 0 0 0 0
-119.22359 -60.898468 -10.690631 10 0 0 0 0
-119.73767 -61.131607 -10.766129 11 0 0 0 0
-120.35446 -61.368969 -10.8519 8 0 0 0 0
-121.1496 -61.612492 -10.955347 11 0 0 0 0
-51.55603 -28.193741 -4.2785525 20 0 0 0 0
-53.743046 -28.75161 -4.4226847 20 0 0 0 0
-53.908173 -28.933388 -4.4336486 19 0 0 0 0
-54.946022 -29.378933 -4.5088515 12 0 0 0 0
-55.35297 -29.781046 -4.5388789 12 0 0 0 0
-55.760956 -29.826159 -4.5709562 14 0 0 0 0
-60.076157 -31.972164 -4.9528465 10 0 0 0 0
-60.855808 -32.308567 -5.0311065 10.5 0 0 0 0
-61.106228 -32.369415 -5.0565119 8 0 0 0 0
-119.30487 -60.323486 -10.632685 18 0 0 0 0
-53.855923 -28.722132 -4.4309344 29 0 0 0 0
-54.131588 -28.679203 -4.4511104 10 0 0 0 0
-54.676571 -29.023186 -4.4898791 11.5 0 0 0 0
-60.695007 -31.636299 -5.0116715 10 0 0 0 0
-60.882332 -31.715551 -5.030519 1 0 0 0 0
-119.46944 -59.861633 -10.595733 22 0 0 0 0
-56.565033 -29.342789 -4.6371245 23.333334 0 0 0 0
-57.03244 -29.565619 -4.6754222 4.6666665 0 0 0 0
-58.701805 -30.102722 -4.8200688 14 0 0 0 0
-60.788437 -31.453072 -5.0199804 3.5 0 0 0 0
-62.393074 -32.039295 -5.1856947 5 0 0 0 0
-119.61594 -59.51355 -10.570113 22 0 0 0 0
-119.7936 -59.279182 -10.560416 17 0 0 0 0
-121.48478 -58.536827 -10.637056 9 0 0 0 0
-120.812 -56.440014 -10.338371 6 0 0 0 0
-122.56715 -56.822792 -10.547514 11 0 0 0 0
-120.32536 -55.531525 -10.191456 13 0 0 0 0
-122.35116 -56.353344 -10.474741 13.5 0 0 0 0
-123.31657 -57.028358 -10.641568 25 0 0 0 0
-122.48696 -55.864384 -10.433286 11 0 0 0 0
-122.59326 -55.616596 -10.415902 27 0 0 0 0
-122.87328 -54.992661 -10.373483 31.5 0 0 0 0
-123.0675 -54.492344 -10.336773 34 0 0 0 0
-121.35294 -53.081688 -10.019947 14 0 0 0 0
-123.22204 -54.114571 -10.309903 37 0 0 0 0
-121.9334 -51.81974 -9.9379435 9 0 0 0 0
-116.13568 -32.24168 -7.418551 19 0 0 0 0
-117.74684 -31.850672 -7.5284181 21 0 0 0 0
-103.04767 -22.101255 -5.3517928 8 0 0 0 0
-103.35809 -22.282152 -5.3937359 11 0 0 0 0
-101.85852 -18.145283 -4.9219522 6 0 0 0 0
-106.39407 -15.293502 -5.0696826 43 0 0 0 0
-106.95007 -15.763186 -5.1553082 43 0 0 0 0
-107.49601 -16.244036 -5.2413602 44 0 0 0 0
-105.85362 -14.815751 -4.9850574 18 0 0 0 0
-91.554832 -7.0799408 -3.2362599 57 0 0 0 0
-91.722015 -7.2227197 -3.2595181 6 0 0 0 0
-91.05899 -6.6447082 -3.1666427 51.666668 0 0 0 0
-102.9986 -12.297874 -4.5444183 13 0 0 0 0
-103.35402 -12.609437 -4.5985756 27 0 0 0 0
-103.52187 -12.773847 -4.6255879 38 0 0 0 0
-89.764236 -5.0909667 -2.9561737 9 0 0 0 0
-99.484634 -9.2008924 -4.0161562 6 0 0 0 0
-99.822006 -9.5201168 -4.0678945 9 0 0 0 0
-100.52619 -10.13263 -4.1721892 55 0 0 0 0
-100.70409 -10.284571 -4.1984167 54 0 0 0 0
-88.245552 -3.7977884 -2.7508171 8 0 0 0 0
-95.457306 -5.7079554 -3.4341788 59 0 0 0 0
-95.72084 -5.9333262 -3.4714038 62 0 0 0 0
-83.02507 0.39440304 -2.0848038 10 0 0 0 0
-95.121071 -5.3906446 -3.3846056 49 0 0 0 0
-96.357315 -5.9250426 -3.5201833 15.5 0 0 0 0
-96.743141 -6.1929297 -3.5703321 18.5 0 0 0 0
-93.752678 -1.1954322 -2.9723969 6 0 0 0 0
-94.138618 -1.4766865 -3.0218542 7 0 0 0 0
-96.599327 -1.9103984 -3.2403259 56 0 0 0 0
-96.983826 -2.206989 -3.2916782 14 0 0 0 0
-47.000992 -140.13339 -16.959244 24 0 0 0 0
-79.766342 -137.90448 -18.370829 13 0 0 0 0
-11.333364 -63.212704 -6.7631154 17 0 0 0 0
-10.393775 -62.066109 -6.6999249 5 0 0 0 0
-11.59216 -62.818665 -6.6943121 26 0 0 0 0
-11.638414 -63.082962 -6.7228227 40 0 0 0 0
-10.904096 -62.208752 -6.6759934 13 0 0 0 0
-11.326559 -62.404835 -6.665596 5 0 0 0 0
-11.778343 -62.54108 -6.6457958 22 0 0 0 0
29.849037 -41.249496 -2.4009652 13 0 0 0 0
29.498619 -41.589775 -2.4319508 7 0 0 0 0
30.145889 -40.412914 -2.3201933 11 0 0 0 0
32.328838 -38.914146 -2.18995 16.5 0 0 0 0
30.507183 -39.805176 -2.2629502 36 0 0 0 0
30.132103 -40.162258 -2.2952011 8 0 0 0 0
32.323711 -38.520546 -2.1510708 24 0 0 0 0
32.371876 -37.845604 -2.0850885 22 0 0 0 0
31.930786 -38.369064 -2.1329432 41 0 0 0 0
32.405151 -37.304543 -2.0323334 27.5 0 0 0 0
32.420578 -36.900051 -1.9929215 28 0 0 0 0
32.475433 -36.079464 -1.9134454 26 0 0 0 0
32.49762 -35.668537 -1.8737504 29 0 0 0 0
32.551647 -34.975071 -1.8070848 12 0 0 0 0
31.943413 -35.442989 -1.8476621 37 0 0 0 0
32.568031 -34.562046 -1.7673931 29 0 0 0 0
32.60685 -34.003414 -1.7139727 29 0 0 0 0
32.661263 -33.299122 -1.6468951 28 0 0 0 0
32.656178 -33.575691 -1.6733222 28 0 0 0 0
32.668816 -32.882996 -1.6072185 27 0 0 0 0
32.674435 -32.466263 -1.5675524 28 0 0 0 0
31.972569 -32.44318 -1.5603895 29 0 0 0 0
32.63414 -31.786453 -1.50272 29 0 0 0 0
32.674252 -31.073181 -1.4355302 29 0 0 0 0
